# .PCD v0.7 - Point Cloud Data file format
VERSION 0.7
FIELDS x y z rgb
SIZE 4 4 4 4
TYPE F F F F
COUNT 1 1 1 1
WIDTH 1030
HEIGHT 1
VIEWPOINT 0 0 0 1 0 0 0
POINTS 1030
DATA ascii
-3.0836494 0.15637065 1.5303482 1.0962995e-38
-3.0604689 0.15700203 1.5165517 1.1054828e-38
-3.0741267 0.15416603 1.5336018 1.1055183e-38
-3.0875309 0.15133062 1.5505236 1.105554e-38
-3.0827339 0.15022004 1.5521626 1.0963705e-38
-3.0779369 0.14910944 1.5538017 1.0871154e-38
-3.0731397 0.14799885 1.5554407 1.0870798e-38
-3.0683427 0.14688826 1.5570797 1.096263e-38
-3.0635457 0.14577767 1.5587187 1.0962627e-38
-3.0587485 0.14466704 1.5603578 1.096263e-38
-3.0360365 0.14534749 1.5466163 1.0779679e-38
-3.0312753 0.14424519 1.548243 1.059457e-38
-3.0443575 0.14133528 1.5652748 1.0502733e-38
-3.0395603 0.1402247 1.5669138 1.0502372e-38
-3.0347633 0.1391141 1.5685529 1.0226505e-38
-3.0299664 0.13800351 1.5701919 1.0041748e-38
-3.0251691 0.13689288 1.5718309 8.9389964e-39
-3.0203722 0.1357823 1.57347 7.8369775e-39
-3.0155752 0.13467172 1.575109 8.7556968e-39
-3.0107782 0.13356112 1.576748 9.6751377e-39
-3.005981 0.13245054 1.578387 1.0135042e-38
-3.001184 0.13133994 1.580026 1.0686411e-38
-2.996387 0.13022935 1.581665 1.087008e-38
-2.9915898 0.12911873 1.583304 1.1053395e-38
-3.0052521 0.1259868 1.6014278 1.0777891e-38
-3.0004172 0.12486743 1.6030797 1.0502382e-38
-2.9955821 0.12374806 1.6047317 1.0410543e-38
-2.9907472 0.1226287 1.6063837 1.0319065e-38
-2.9859123 0.12150933 1.6080356 1.0411615e-38
-2.9810774 0.12038997 1.6096876 1.0503449e-38
-2.9943023 0.11721616 1.6277456 1.0411613e-38
-2.9714074 0.11815121 1.6129916 1.0319776e-38
-2.9845572 0.11496003 1.6310753 1.0227579e-38
-2.9796846 0.11383196 1.63274 1.0226497e-38
-2.9748123 0.1127039 1.6344049 1.0409446e-38
-2.9699397 0.11157586 1.6360697 1.0594203e-38
-2.9472327 0.11255437 1.6212513 1.0687125e-38
-2.9423978 0.11143501 1.6229033 1.0778226e-38
-2.9196341 0.11245982 1.6078894 1.004173e-38
-2.9148371 0.11134923 1.6095284 9.2991231e-39
-3.3732038 0.054155193 2.0442121 8.5590273e-39
-3.3674233 0.052816913 2.0461872 7.8247119e-39
-3.3616428 0.051478658 2.0481622 7.5495739e-39
-3.3558626 0.050140403 2.0501373 7.3644554e-39
-3.3500822 0.048802149 2.0521123 6.8127124e-39
-3.3443017 0.047463894 2.0540872 6.3503007e-39
-3.3385212 0.046125613 2.0560622 5.8875317e-39
-3.3327408 0.044787358 2.0580373 5.4279955e-39
-3.3269603 0.043449104 2.0600123 4.9681005e-39
-3.2962341 0.045302838 2.0380433 4.6004068e-39
-3.2905078 0.043977086 2.0399997 4.3245472e-39
-3.0072789 0.073008008 1.7942501 4.2345278e-39
-2.9823918 0.07443206 1.7767361 4.3281583e-39
-2.9772782 0.0732482 1.7784834 4.4217903e-39
-3.0112898 0.066810213 1.8186816 4.6054641e-39
-3.0060902 0.0656064 1.8204582 4.6058256e-39
-3.0008905 0.064402595 1.8222349 4.605104e-39
-2.9956906 0.063198783 1.8240114 4.4207127e-39
-2.9904909 0.061994947 1.825788 4.3277968e-39
-2.9852912 0.060791139 1.8275646 4.2355984e-39
-2.9800916 0.05958733 1.8293412 4.2356026e-39
-2.9942327 0.05567544 1.8505266 4.0519372e-39
-2.9889896 0.054461606 1.8523179 3.9593744e-39
-2.9644926 0.055975903 1.834671 3.6831407e-39
-2.9592929 0.05477209 1.8364476 3.4991123e-39
-2.9350839 0.056293689 1.8189173 3.7746202e-39
-2.9299271 0.05509983 1.8206792 4.0512057e-39
-2.9436936 0.051160637 1.8417773 4.0512099e-39
-2.9196136 0.052712061 1.824203 4.049768e-39
-2.9144566 0.051518172 1.8259649 3.5895087e-39
-2.9093001 0.050324313 1.8277268 3.1296081e-39
-2.922895 0.046345402 1.8488837 2.6700663e-39
-2.9176953 0.045141567 1.8506603 2.2101784e-39
-2.9313171 0.041109491 1.8720231 2.7601208e-39
-2.9072959 0.042733945 1.8542135 3.405123e-39
-2.8835161 0.044354912 1.8365365 3.4987536e-39
-2.8783593 0.043161027 1.8382984 3.5905891e-39
-3.1773679 -0.0093562352 2.176919 3.6784617e-39
-3.0576112 0.0071017691 2.0578644 3.3121917e-39
-3.0735166 0.0024106067 2.0827472 4.0483078e-39
-3.0678425 0.001096945 2.0846858 4.7822743e-39
-3.04074 0.0031957598 2.0636289 5.5162422e-39
-3.0351162 0.0018937824 2.0655503 6.2502087e-39
-3.0294924 0.00059177936 2.0674717 5.7874453e-39
-3.1361392 -0.0189014 2.1910057 5.3279091e-39
-3.0890205 -0.029810127 2.2071049 2.1189817e-38
-3.0831306 -0.031173741 2.2091174 2.1105884e-38
-1.9465179 0.16147478 0.94721562 2.1010485e-38
-1.9433726 0.16074657 0.94829035 2.0737156e-38
-1.9402272 0.16001837 0.94936502 2.0552413e-38
-1.9436632 0.15814146 0.95786679 2.0367311e-38
-1.9405018 0.15740953 0.958947 2.0183642e-38
-1.8930802 0.14643067 0.97514963 2.018257e-38
-1.8899188 0.14569876 0.97622985 2.0366597e-38
-1.8584481 0.14108521 0.97730666 2.018364e-38
-1.8553028 0.140357 0.97838134 2.0459145e-38
-1.8521575 0.13962881 0.97945607 2.0735016e-38
-1.8490121 0.13890061 0.98053074 2.0460233e-38
-1.8458668 0.13817242 0.98160541 2.0276199e-38
-1.8427215 0.13744421 0.98268008 2.0184361e-38
-1.8395761 0.13671601 0.98375475 2.0184362e-38
-1.8364307 0.13598782 0.98482943 2.0183646e-38
-1.8332853 0.13525961 0.9859041 2.0275842e-38
-1.8241057 0.13580677 0.97936487 2.0184368e-38
-1.8209765 0.1350823 0.98043406 2.0184363e-38
-1.8178473 0.13435782 0.98150325 2.018364e-38
-1.814718 0.13363335 0.98257238 2.0275837e-38
-1.8084595 0.13218442 0.98471075 2.0275839e-38
-1.6210626 0.10168594 1.0020806 1.9815218e-38
-1.618011 0.10097943 1.0031233 1.9907055e-38
-1.472419 0.072320379 1.0345917 4.7091952e-39
-1.4093405 0.067277946 1.0215263 1.8248247e-38
-1.4063768 0.066591799 1.0225389 1.8248247e-38
-1.4034132 0.06590566 1.0235515 1.8339368e-38
-1.4004495 0.065219514 1.0245641 1.8523041e-38
-1.3938813 0.066074349 1.0182077 1.8706351e-38
-1.390932 0.065391518 1.0192153 1.852232e-38
-1.3915584 0.06316109 1.027602 1.8339365e-38
-1.3885947 0.062474944 1.0286146 1.8155694e-38
-1.385631 0.061788801 1.0296272 1.8063857e-38
-1.3826673 0.061102659 1.0306398 1.797202e-38
-1.3797036 0.060416516 1.0316525 1.7971657e-38
-1.37674 0.059730373 1.032665 1.7879819e-38
-1.3737762 0.059044231 1.0336777 1.7878745e-38
-1.3673369 0.059928868 1.0272771 1.8153537e-38
-1.3643874 0.059246037 1.0282849 1.8431904e-38
-1.3584218 0.05994343 1.0227976 1.696432e-38
-1.355485 0.059263494 1.0238011 1.5558695e-38
-1.0021486 0.045220654 0.89919263 1.8439126e-40
-0.99961978 0.044635184 0.90005666 1.8439126e-40
-0.99709094 0.04404971 0.90092069 1.8475139e-40
-0.9864893 0.051453475 0.86885023 2.7622676e-40
-0.98401976 0.050881743 0.86969399 3.6806225e-40
-0.98155028 0.050310012 0.87053776 5.5209198e-40
-0.9790808 0.049738284 0.87138152 4.6097395e-40
-0.55610836 -0.074138664 1.1098621 1.5391616e-38
-0.55387956 -0.072873056 1.1041731 1.5112889e-38
-0.46833411 -0.090896606 1.126951 1.2896217e-38
-0.46572974 -0.09149956 1.1278409 1.1238133e-38
-3.0640447 0.16308707 1.5149558 1.1055187e-38
-3.0777302 0.16029757 1.5319937 1.1055184e-38
-3.072969 0.15919527 1.5336205 1.0963346e-38
-3.0863643 0.15639763 1.5505425 1.0963705e-38
-3.081567 0.15528703 1.5521815 1.0871512e-38
-3.0767701 0.15417644 1.5538205 1.0871156e-38
-3.0719731 0.15306585 1.5554595 1.08708e-38
-3.0671761 0.15195526 1.5570985 1.0962633e-38
-3.0623791 0.15084466 1.5587375 1.0962631e-38
-3.0575819 0.14973405 1.5603766 1.0962991e-38
-3.0348785 0.15037674 1.5466349 1.0778963e-38
-3.0479877 0.14751287 1.5636547 1.0686769e-38
-3.0431907 0.14640228 1.5652937 1.0594935e-38
-3.0383937 0.14529169 1.5669327 1.0503095e-38
-3.0335968 0.1441811 1.5685717 1.0318704e-38
-3.0287998 0.1430705 1.5702107 1.0043192e-38
-3.0240026 0.14195989 1.5718498 9.3070671e-39
-3.0192056 0.14084931 1.5734888 8.6638585e-39
-3.0144086 0.13973871 1.5751278 9.031199e-39
-3.0096114 0.13862813 1.5767668 9.3996256e-39
-3.0048144 0.13751753 1.5784059 9.9513645e-39
-3.0000174 0.13640694 1.5800449 1.0411258e-38
-2.9952204 0.13529634 1.5816839 1.0594569e-38
-2.9904232 0.13418573 1.5833229 1.0777883e-38
-3.0040762 0.13109381 1.6014467 1.0594213e-38
-2.9992414 0.12997445 1.6030988 1.0410901e-38
-2.9944065 0.12885509 1.6047506 1.0319065e-38
-2.9895713 0.12773572 1.6064026 1.0319065e-38
-2.9847364 0.12661636 1.6080546 1.0503095e-38
-2.9799016 0.12549698 1.6097065 1.0687123e-38
-2.9931173 0.12236285 1.6277648 1.0595286e-38
-2.9882448 0.12123479 1.6294296 1.041197e-38
-2.9833722 0.12010672 1.6310943 1.0319771e-38
-2.9784997 0.11897866 1.6327592 1.0135733e-38
-2.9736271 0.11785059 1.634424 1.0042096e-38
-2.9687548 0.11672255 1.6360887 1.0042478e-38
-2.9638822 0.11559448 1.6377536 1.0594593e-38
-2.941222 0.11654203 1.6229223 1.1146302e-38
-2.9184675 0.11752683 1.6079082 1.0409805e-38
-2.9136705 0.11641624 1.6095473 9.6707713e-39
-3.3972168 0.057238419 2.0680132 8.0994799e-39
-3.3913822 0.05588764 2.0700066 6.5379247e-39
-3.3602371 0.057584386 2.0481849 6.4428677e-39
-3.3544567 0.056246132 2.0501599 6.4407125e-39
-3.3486762 0.054907877 2.052135 5.9800986e-39
-3.342896 0.053569622 2.0541101 5.6113161e-39
-3.3371153 0.052231342 2.0560849 5.2428937e-39
-3.3062942 0.054003038 2.0341525 4.8741168e-39
-3.3005679 0.052677281 2.036109 4.7830002e-39
-3.2948413 0.051351529 2.0380657 4.6911661e-39
-3.289115 0.050025772 2.0400221 4.508214e-39
-3.2833884 0.048699994 2.0419788 4.3245486e-39
-3.0060248 0.078455001 1.7942704 4.0508526e-39
-2.981148 0.079833344 1.7767563 4.2356068e-39
-2.9760346 0.078649484 1.7785034 4.3278094e-39
-3.0100253 0.072302505 1.8187021 4.420361e-39
-3.0048256 0.0710987 1.8204787 4.51363e-39
-2.9996257 0.069894888 1.8222553 4.6051054e-39
-2.994426 0.068691082 1.8240318 4.5121937e-39
-2.9892263 0.067487247 1.8258084 4.5121895e-39
-2.9840267 0.066283435 1.8275851 4.3274381e-39
-2.978827 0.065079629 1.8293617 4.1437727e-39
-2.9929576 0.061213452 1.8505472 3.9601073e-39
-2.9877145 0.059999615 1.8523386 3.8686207e-39
-2.9441433 0.064128451 1.8154136 3.4991179e-39
-2.9580283 0.06026439 1.836468 3.1317745e-39
-2.9338298 0.061740682 1.8189375 3.4991151e-39
-2.909559 0.063259281 1.8012164 3.9600933e-39
-2.9424291 0.056652937 1.8417978 3.9593842e-39
-2.9183593 0.05815905 1.8242233 4.0504938e-39
-2.9132025 0.056965165 1.8259852 3.6809925e-39
-2.9080458 0.055771306 1.8277471 3.4051174e-39
-2.902889 0.054577418 1.829509 3.0366894e-39
-2.9164307 0.050633863 1.8506808 2.5771588e-39
-2.930042 0.046647504 1.8720436 2.8530311e-39
-2.8874187 0.050995789 1.8347949 3.2210919e-39
-2.9008317 0.047022436 1.8560106 3.5891542e-39
-2.895632 0.045818627 1.8577871 4.0504826e-39
-3.0562437 0.013042073 2.0578864 4.8733938e-39
-3.0721366 0.0084041739 2.0827694 5.2410861e-39
-3.0664625 0.0070905117 2.0847082 5.7024131e-39
-3.0607882 0.00577685 2.0866468 7.4465687e-39
-3.055114 0.0044631627 2.0885856 9.1918019e-39
-3.0494399 0.003149501 2.0905244 1.0201634e-38
-1.9583343 0.16770992 0.94292927 1.9270628e-38
-1.9485149 0.16809106 0.93660986 1.9911735e-38
-1.9520437 0.16625352 0.94507861 2.0653598e-38
-1.9488983 0.16552532 0.94615328 2.0553875e-38
-1.945753 0.16479713 0.94722801 2.0459161e-38
-1.9270872 0.15782118 0.96328014 2.0366957e-38
-1.9239258 0.15708925 0.9643603 2.0183642e-38
-1.8639739 0.14586395 0.97516966 2.0092166e-38
-1.8546373 0.14635687 0.96868533 2.0092166e-38
-1.851508 0.14563239 0.96975452 2.0092884e-38
-1.8545378 0.14367935 0.97839373 2.0276197e-38
-1.8513925 0.14295116 0.97946841 2.055171e-38
-1.8421203 0.14345898 0.97296202 2.0368404e-38
-1.838991 0.14273451 0.97403121 2.0185086e-38
-1.8358618 0.14201003 0.9751004 2.0184722e-38
-1.8327326 0.14128555 0.97616959 2.0184363e-38
-1.8296033 0.14056109 0.97723877 2.0276199e-38
-1.8202932 0.14111914 0.97053033 2.0368033e-38
-1.8202155 0.13838767 0.98044634 2.0092522e-38
-1.8170862 0.13766319 0.98151553 2.0091801e-38
-1.7009877 0.11851206 0.9930197 2.0092525e-38
-1.6294755 0.10702886 0.99896455 1.9998525e-38
-1.6311117 0.10498914 1.00722 2.0181838e-38
-1.6280454 0.10427924 1.0082678 1.9998169e-38
-1.6203204 0.10490934 1.0020926 1.9907412e-38
-1.6172688 0.10420283 1.0031352 1.9907415e-38
-1.4115834 0.07109458 1.0205253 1.8892178e-38
-1.4049616 0.071921065 1.0141883 1.8800343e-38
-1.4020122 0.071238235 1.015196 1.8799984e-38
-1.3990628 0.070555404 1.0162038 1.8707434e-38
-1.3961134 0.069872573 1.0172114 1.8799272e-38
-1.393164 0.069189742 1.0182192 1.8891461e-38
-1.3902147 0.068506911 1.0192269 1.8799261e-38
-1.3872652 0.067824081 1.0202347 1.8706707e-38
-1.3843158 0.06714125 1.0212424 1.8431559e-38
-1.3813665 0.066458419 1.0222501 1.8248244e-38
-1.378417 0.065775588 1.0232579 1.8063854e-38
-1.3754677 0.065092757 1.0242655 1.787982e-38
-1.3725183 0.064409927 1.0252733 1.7879459e-38
-1.3695689 0.063727096 1.026281 1.78791e-38
-1.3635813 0.064405441 1.0208023 1.8154606e-38
-1.3606445 0.063725509 1.0218056 1.8340071e-38
-1.3577076 0.063045576 1.0228091 1.7147644e-38
-1.3547707 0.062365644 1.0238127 1.5933576e-38
-1.0028131 0.049662795 0.89339072 1.8474999e-40
-1.0002931 0.049079392 0.8942517 1.8439126e-40
-0.55809551 -0.070757218 1.1089752 1.5483092e-38
-0.55585861 -0.069505423 1.1032898 1.5389105e-38
-0.55324358 -0.07011085 1.1041833 1.5204716e-38
-0.47030503 -0.087542787 1.1260715 1.3542672e-38
-0.46845424 -0.086201653 1.1202543 1.3355393e-38
-0.46586069 -0.086802103 1.1211404 1.1790224e-38
-3.0813334 0.16642915 1.5303856 1.1055184e-38
-3.0765722 0.16532683 1.5320125 1.1146657e-38
-3.0899947 0.16257522 1.5489223 1.0962983e-38
-3.0851974 0.16146463 1.5505613 1.0871868e-38
-3.0804005 0.16035403 1.5522003 1.0871512e-38
-3.0756035 0.15924345 1.5538393 1.0962994e-38
-3.0708065 0.15813285 1.5554783 1.0962998e-38
-3.0660093 0.15702227 1.5571173 1.0962993e-38
-3.0612123 0.15591167 1.5587564 1.0962987e-38
-3.0564153 0.15480106 1.5603955 1.0962272e-38
-3.0337205 0.15540598 1.5466536 1.0870081e-38
-3.0468211 0.15257987 1.5636735 1.0870438e-38
-3.0420241 0.15146929 1.5653125 1.0686767e-38
-3.0372272 0.15035869 1.5669515 1.059493e-38
-3.0324302 0.14924811 1.5685905 1.0319062e-38
-3.027633 0.14813751 1.5702295 1.0135026e-38
-3.022836 0.1470269 1.5718687 9.7669606e-39
-3.0180387 0.14591631 1.5735077 9.4903709e-39
-3.0132418 0.14480571 1.5751467 9.3056167e-39
-3.0084448 0.14369513 1.5767857 9.21487e-39
-3.0222402 0.14067839 1.5948578 9.6758538e-39
-3.0174053 0.13955903 1.5965098 1.0227226e-38
-2.9940536 0.14036335 1.5817027 1.0411613e-38
-3.0077353 0.13732027 1.5998137 1.0595285e-38
-3.0029004 0.1362009 1.6014657 1.0411617e-38
-2.9980655 0.13508153 1.6031177 1.0319781e-38
-2.9932306 0.13396217 1.6047697 1.0319783e-38
-3.0065496 0.13089372 1.6227895 1.0411261e-38
-3.0016773 0.12976567 1.6244543 1.0686769e-38
-2.9968047 0.12863761 1.6261191 1.0962272e-38
-2.9919322 0.12750955 1.6277839 1.0778959e-38
-2.9870598 0.12638149 1.6294488 1.0595284e-38
-2.9821873 0.12525342 1.6311135 1.0320132e-38
-2.9773147 0.12412535 1.6327783 1.013538e-38
-2.9724422 0.12299728 1.6344432 9.7666005e-39
-2.9675698 0.12186924 1.6361079 9.4911052e-39
-2.9626973 0.12074118 1.6377727 1.0502742e-38
-2.9400461 0.12164911 1.6229414 1.1512924e-38
-2.9173009 0.12259383 1.6079271 1.077895e-38
-2.8956432 0.12343884 1.5938309 1.0039202e-38
-2.8908818 0.12233651 1.5954578 7.6331418e-39
-3.3646116 0.06502831 2.0462327 5.335818e-39
-3.3588312 0.063690059 2.0482075 5.4258599e-39
-3.3530509 0.062351801 2.0501826 5.5176912e-39
-3.3220809 0.064029016 2.0283053 5.1499863e-39
-3.3163545 0.062703259 2.030262 4.8759119e-39
-3.3106279 0.061377481 2.0322185 4.5996865e-39
-3.3049016 0.060051724 2.0341749 4.3238213e-39
-3.299175 0.058725972 2.0361316 4.5074923e-39
-3.2934487 0.057400219 2.0380881 4.7829974e-39
-3.2877223 0.056074463 2.0400448 4.6000439e-39
-3.2819958 0.054748684 2.0420012 4.508214e-39
-3.2762694 0.053422928 2.0439579 4.1408762e-39
-3.0139604 0.078998618 1.8169459 4.2341747e-39
-3.0087607 0.077794805 1.8187225 4.32888e-39
-3.003561 0.076591 1.8204991 4.5143461e-39
-2.9983611 0.075387187 1.8222756 4.6969409e-39
-2.9931614 0.074183375 1.8240522 4.6958661e-39
-2.9879618 0.07297954 1.8258289 4.6958633e-39
-2.9827621 0.071775734 1.8276055 4.3270849e-39
-2.9969254 0.067965299 1.8487763 4.0515785e-39
-2.9916823 0.066751458 1.8505677 3.8679089e-39
-2.9864395 0.065537624 1.8523592 3.7764237e-39
-2.9619634 0.066960499 1.8347118 3.22361e-39
-2.9567637 0.065756686 1.8364884 2.7644298e-39
-2.9515638 0.064552851 1.8382651 3.3143637e-39
-2.9274189 0.065993816 1.8207196 3.8682522e-39
-2.922262 0.064799927 1.8224816 3.9600947e-39
-2.9171052 0.063606039 1.8242435 4.0504896e-39
-2.9119484 0.062412158 1.8260055 3.8646621e-39
-2.9067917 0.061218295 1.8277674 3.7724608e-39
-2.9016349 0.06002441 1.8295293 3.4033196e-39
-2.8964782 0.058830526 1.8312913 3.0363391e-39
-2.9099665 0.05492235 1.8524778 3.0374195e-39
-2.9047668 0.053718541 1.8542544 3.0374237e-39
-2.8995671 0.052514732 1.8560309 3.7710371e-39
-2.8943675 0.051310923 1.8578075 4.5057113e-39
-3.0707567 0.014397683 2.0827918 6.521402e-39
-3.0650826 0.01308402 2.0847304 6.613267e-39
-3.0594082 0.011770358 2.0866692 9.3676452e-39
-3.0537341 0.010456671 2.088608 1.2145679e-38
-3.0480599 0.0091430098 2.0905466 1.463529e-38
-1.9502741 0.17467506 0.92587298 2.1746574e-38
-1.9471613 0.1739544 0.92693651 2.1287418e-38
-1.9508832 0.1721209 0.93555295 2.0827905e-38
-1.9477539 0.17139642 0.93662214 2.0460229e-38
-1.9512787 0.1695759 0.94509101 2.0184366e-38
-1.9481333 0.16884769 0.94616568 2.0000339e-38
-1.9261159 0.16375031 0.95368844 2.0183643e-38
-1.9229705 0.1630221 0.95476311 2.0091809e-38
-1.9198252 0.1622939 0.95583779 2.0091809e-38
-1.9166799 0.16156571 0.95691246 2.0092166e-38
-1.9135345 0.1608375 0.95798713 2.0092169e-38
-1.9103892 0.16010931 0.95906186 2.0091815e-38
-1.9072437 0.15938111 0.96013653 2.0091808e-38
-1.8695226 0.15328459 0.96335173 1.9999611e-38
-1.8663933 0.15256011 0.96442086 2.0092168e-38
-1.8632641 0.15183565 0.96549004 2.0184003e-38
-1.8601348 0.15111117 0.96655923 2.0184362e-38
-1.8570055 0.15038669 0.96762842 2.0184003e-38
-1.8475515 0.15089311 0.96097052 2.0092885e-38
-1.8444387 0.15017246 0.96203405 2.0092885e-38
-1.8476177 0.14821327 0.97083598 2.0184722e-38
-1.838213 0.14873111 0.96416122 2.0368037e-38
-1.8351002 0.14801046 0.96522474 2.0184728e-38
-1.8319874 0.1472898 0.96628833 2.0092889e-38
-1.8288746 0.14656912 0.96735185 2.0093604e-38
-1.8257618 0.14584847 0.96841544 2.0185081e-38
-1.8164234 0.14368647 0.97160614 2.0276915e-38
-1.7039577 0.12526569 0.98208779 2.0184365e-38
-1.7008914 0.12455579 0.98313546 2.0184366e-38
-1.6978251 0.12384588 0.98418313 2.0184005e-38
-1.6947588 0.12313598 0.9852308 2.0092166e-38
-1.6579629 0.11461715 0.99780297 2.0275466e-38
-1.6548966 0.11390725 0.99885064 2.0459137e-38
-1.41679 0.075597331 1.0185118 1.9722287e-38
-1.4138263 0.074911192 1.0195243 1.9721208e-38
-1.4071937 0.07571926 1.0131922 1.9540045e-38
-1.4042443 0.075036429 1.0141999 1.9446417e-38
-1.3981096 0.0756668 1.0087724 1.9263465e-38
-1.3951727 0.074986868 1.0097759 1.9170199e-38
-1.3922358 0.074306928 1.0107793 1.917092e-38
-1.3892989 0.073626995 1.0117828 1.9168407e-38
-1.3863621 0.072947063 1.0127861 1.9077643e-38
-1.3834252 0.07226713 1.0137897 1.9076207e-38
-1.3804883 0.071587197 1.014793 1.8708144e-38
-1.3806492 0.069573782 1.0222617 1.8431558e-38
-1.3746146 0.070227332 1.0167999 1.8156047e-38
-1.3716776 0.069547392 1.0178034 1.7879461e-38
-1.3687408 0.06886746 1.0188069 1.787946e-38
-1.3623209 0.069724791 1.0124019 1.7970935e-38
-1.3593982 0.069048174 1.0134006 1.8154606e-38
-1.3564757 0.068371549 1.0143992 1.8340075e-38
-1.3535532 0.067694925 1.0153977 1.7334552e-38
-1.3506306 0.067018308 1.0163963 1.6395628e-38
-1.0022002 0.052324519 0.89340061 2.7658409e-40
-0.5813731 -0.060688961 1.0943651 3.2218304e-39
-0.57875806 -0.061294388 1.0952586 2.9391745e-39
-0.55783767 -0.066137791 1.1024066 1.5297988e-38
-0.55522263 -0.066743217 1.1033001 1.548094e-38
-0.4659968 -0.082127251 1.1144397 1.2342309e-38
-3.0801754 0.17145835 1.5304043 1.0963346e-38
-3.0936251 0.16875283 1.5473021 1.0962983e-38
-3.0888278 0.16764222 1.5489411 1.0871145e-38
-3.0840309 0.16653162 1.5505801 1.0688195e-38
-3.0792339 0.16542104 1.5522192 1.0871513e-38
-3.0744369 0.16431044 1.5538582 1.0962638e-38
-3.0696397 0.16319986 1.5554972 1.0963004e-38
-3.0648427 0.16208926 1.5571362 1.0962994e-38
-3.0600457 0.16097867 1.5587752 1.1054461e-38
-3.0552485 0.15986806 1.5604143 1.1145942e-38
-3.0504515 0.15875746 1.5620533 1.0962275e-38
-3.0456545 0.15764688 1.5636923 1.0870797e-38
-3.0408576 0.15653628 1.5653313 1.0686766e-38
-3.0360603 0.1554257 1.5669703 1.0595288e-38
-3.0500739 0.15250161 1.584965 1.0411617e-38
-3.045239 0.15138225 1.586617 1.0319773e-38
-3.0404041 0.15026288 1.5882689 9.9509889e-39
-3.0168722 0.1509833 1.5735265 9.5825581e-39
-3.0120752 0.14987272 1.5751655 9.1219345e-39
-3.0258992 0.14690478 1.5932249 8.7538919e-39
-3.0210643 0.14578542 1.5948768 9.3989096e-39
-3.0162294 0.14466605 1.5965288 1.0043193e-38
-3.0113943 0.14354666 1.5981808 1.0410894e-38
-3.0065594 0.1424273 1.5998328 1.0778596e-38
-3.0017245 0.14130792 1.6014847 1.0594928e-38
-2.9968896 0.14018856 1.6031367 1.0411258e-38
-2.9920547 0.13906918 1.6047887 1.0411261e-38
-2.9872196 0.13794982 1.6064407 1.0411262e-38
-3.0004923 0.13491237 1.6244735 1.0594577e-38
-2.9956198 0.13378431 1.6261382 1.0870081e-38
-2.9907472 0.13265625 1.6278031 1.0686767e-38
-2.9858747 0.13152818 1.6294678 1.0595286e-38
-2.9810021 0.13040011 1.6311326 1.0411252e-38
-2.9761298 0.12927204 1.6327975 1.0227223e-38
-2.9712572 0.12814398 1.6344622 1.0042477e-38
-2.9663849 0.12701593 1.636127 9.8577283e-39
-2.9615123 0.12588787 1.6377919 1.0409816e-38
-2.9388702 0.12675613 1.6229603 1.0961192e-38
-2.9161341 0.12766083 1.6079459 1.0687125e-38
-2.9113371 0.12655024 1.6095849 1.0503772e-38
-2.9065402 0.12543964 1.6112239 8.0991492e-39
-3.3885443 0.068213172 2.0700526 5.6985035e-39
-3.3574255 0.069795787 2.0482304 5.6084533e-39
-3.351645 0.068457529 2.0502052 5.5184058e-39
-3.3458648 0.067119278 2.0521803 5.2421763e-39
-3.3149617 0.068751894 2.0302844 4.9681047e-39
-3.3092353 0.067426108 2.0322409 4.7837163e-39
-3.3035088 0.066100359 2.0341976 4.6000439e-39
-3.2977824 0.064774603 2.036154 4.6915206e-39
-3.2920561 0.063448846 2.0381107 4.7833533e-39
-3.2863297 0.062123094 2.0400672 4.5996809e-39
-3.2806032 0.060797315 2.0420237 4.4163729e-39
-3.2748768 0.059471559 2.0439804 3.8653641e-39
-3.0126958 0.08449091 1.8169663 4.0504995e-39
-3.027108 0.080786295 1.8380487 4.1466411e-39
-3.0218651 0.079572454 1.8398401 4.6054627e-39
-3.0166221 0.07835862 1.8416314 5.0642828e-39
-2.9918969 0.079675674 1.8240727 4.8798972e-39
-2.9866972 0.078471839 1.8258493 4.6958675e-39
-2.9814975 0.077268034 1.8276259 4.5107629e-39
-2.9762979 0.076064222 1.8294024 4.2356096e-39
-2.9904072 0.072289467 1.8505883 4.1434111e-39
-2.9851644 0.071075633 1.8523797 4.0526462e-39
-2.9799213 0.069861799 1.854171 3.7756992e-39
-2.9746785 0.068647988 1.8559624 3.4998284e-39
-2.9694355 0.067434154 1.8577539 3.6831364e-39
-2.9450996 0.068841338 1.840062 3.8682466e-39
-2.9210079 0.07024686 1.8225018 3.9597289e-39
-2.9158511 0.069052972 1.8242638 4.0515616e-39
-2.9106944 0.067859091 1.8260257 4.0494078e-39
-2.9055376 0.066665232 1.8277876 4.049405e-39
-2.9003808 0.065471344 1.8295496 3.3122085e-39
-2.8952239 0.064277455 1.8313115 2.6690013e-39
-2.8900673 0.063083597 1.8330734 2.3016594e-39
-2.8849103 0.061889712 1.8348354 1.9357593e-39
-2.8797536 0.060695827 1.8365973 2.3909991e-39
-2.8931026 0.056803219 1.857828 2.848006e-39
-3.0580282 0.017763868 2.0866914 1.4735065e-38
-3.0523541 0.01645018 2.0886302 1.6588295e-38
-3.04668 0.015136519 2.090569 1.778648e-38
-1.9657685 0.17904863 0.93021935 1.9634062e-38
-1.9557426 0.17940436 0.92375809 2.0371978e-38
-1.9526299 0.1786837 0.92482162 2.0644617e-38
-1.9532514 0.17615072 0.9344961 2.0643181e-38
-1.9501221 0.17542626 0.93556529 2.0366594e-38
-1.9473684 0.17217004 0.94617802 1.9998893e-38
-1.9284962 0.16780084 0.95262611 2.0183643e-38
-1.9253509 0.16707265 0.95370078 2.0092166e-38
-1.9031833 0.16455916 0.951603 2.0092539e-38
-1.9000541 0.16383469 0.95267218 2.0092532e-38
-1.8969249 0.16311021 0.95374137 2.0000331e-38
-1.8937956 0.16238573 0.95481056 1.9908493e-38
-1.8906662 0.16166127 0.95587975 1.9999966e-38
-1.887537 0.16093679 0.95694888 2.0183636e-38
-1.8844078 0.16021231 0.95801806 2.0183635e-38
-1.8812785 0.15948784 0.95908725 2.0275473e-38
-1.8844614 0.15760607 0.96767163 2.0275836e-38
-1.8813161 0.15687786 0.9687463 2.0275114e-38
-1.8781707 0.15614966 0.96982098 2.009144e-38
-1.8687615 0.15658996 0.96336401 1.9907774e-38
-1.8592457 0.15706374 0.95672846 1.9999973e-38
-1.8467944 0.15418108 0.96098274 1.9908141e-38
-1.8405688 0.15273975 0.96310985 1.9999976e-38
-1.7124109 0.13063428 0.97895682 2.0000692e-38
-1.6493527 0.1184212 0.9916898 1.9815568e-38
-1.427924 0.081472367 1.014473 1.558898e-38
-1.4212233 0.082248777 1.0081651 1.4854295e-38
-1.4182739 0.081565946 1.0091728 1.3565368e-38
-1.4153246 0.080883116 1.0101806 1.2371501e-38
-1.4123751 0.080200292 1.0111883 1.2000926e-38
-1.4094257 0.079517454 1.0121959 1.1633581e-38
-1.4032691 0.080128811 1.006777 1.0894591e-38
-1.4003322 0.079448879 1.0077804 1.0159191e-38
-1.3973953 0.078768946 1.0087839 1.0710566e-38
-1.3908358 0.079578064 1.0024278 1.1355572e-38
-1.3915216 0.077409081 1.0107908 1.1906951e-38
-1.3885846 0.076729141 1.0117942 1.2460473e-38
-1.382068 0.077548198 1.0054235 1.3838722e-38
-1.3791455 0.076871574 1.006422 1.5221631e-38
-1.376223 0.076194949 1.0074207 1.6319708e-38
-1.3768371 0.074009411 1.0158081 1.7421369e-38
-1.3703778 0.074841708 1.0094178 1.7788703e-38
-1.3674552 0.074165083 1.0104164 1.8246087e-38
-1.3645327 0.073488459 1.0114149 1.8154611e-38
-1.3616101 0.072811842 1.0124135 1.8062772e-38
-1.3586875 0.072135217 1.013412 1.8062771e-38
-1.355765 0.071458593 1.0144106 1.7972737e-38
-1.3528423 0.070781976 1.0154091 1.7515722e-38
-1.3499198 0.070105352 1.0164077 1.704458e-38
-0.9348138 0.041331053 0.90956241 4.6025788e-40
-0.58335215 -0.057321358 1.0934819 4.9670117e-39
-0.58073711 -0.057926781 1.0943754 7.168247e-39
-0.57812208 -0.058532208 1.095269 8.4744464e-39
-0.57550699 -0.059137631 1.0961624 9.7788408e-39
-0.57289195 -0.059743058 1.0970559 1.2356735e-38
-0.46536866 -0.079399049 1.1144499 1.2896548e-38
-3.0790176 0.17648759 1.530423 1.0871869e-38
-3.0742562 0.17538527 1.5320498 1.0871512e-38
-3.0876613 0.17270923 1.54896 1.0687842e-38
-3.0828643 0.17159863 1.550599 1.0596007e-38
-3.0780671 0.17048804 1.552238 1.0779678e-38
-3.0732701 0.16937745 1.553877 1.105483e-38
-3.0684731 0.16826686 1.555516 1.1054835e-38
-3.0636761 0.16715626 1.557155 1.1054828e-38
-3.0588791 0.16604568 1.5587941 1.1146298e-38
-3.0540819 0.16493507 1.5604331 1.1329616e-38
-3.0492849 0.16382447 1.5620722 1.1146311e-38
-3.044488 0.16271389 1.5637112 1.0962278e-38
-3.058568 0.15984739 1.5816801 1.0778604e-38
-3.0537331 0.15872803 1.5833319 1.0594933e-38
-3.0488982 0.15760864 1.5849839 1.0503458e-38
-3.0440631 0.15648927 1.5866359 1.0503449e-38
-3.0392282 0.15536991 1.5882879 1.0135382e-38
-3.0343933 0.15425053 1.5899398 9.7665977e-39
-3.0295584 0.15313117 1.5915918 9.0304704e-39
-3.0247233 0.15201181 1.5932438 8.2954361e-39
-3.0198884 0.15089244 1.5948958 9.0312032e-39
-3.0150535 0.14977308 1.5965477 9.8588017e-39
-3.0102184 0.14865369 1.5981997 1.0410535e-38
-3.0053835 0.14753431 1.5998517 1.0961554e-38
-3.0005486 0.14641495 1.6015037 1.0686411e-38
-2.9957137 0.14529558 1.6031556 1.050274e-38
-2.9908788 0.14417621 1.6048076 1.0411264e-38
-2.9860437 0.14305685 1.6064596 1.0411268e-38
-2.9993072 0.14005907 1.6244925 1.0594586e-38
-2.9944348 0.13893101 1.6261574 1.0778251e-38
-2.9895623 0.13780294 1.6278222 1.0686769e-38
-2.9667039 0.13857935 1.6130675 1.059457e-38
-2.9798172 0.1355468 1.6311518 1.0410896e-38
-2.9749446 0.13441874 1.6328166 1.0318708e-38
-2.9700723 0.13329068 1.6344814 1.0318356e-38
-2.9651997 0.13216263 1.6361462 1.0317632e-38
-2.9603271 0.13103457 1.6378109 1.0317625e-38
-2.9554548 0.12990651 1.6394758 1.0409823e-38
-2.9149675 0.13272783 1.6079648 1.0687488e-38
-2.9101706 0.13161725 1.6096038 1.1054443e-38
-2.9053736 0.13050665 1.6112428 8.5637357e-39
-3.3871255 0.074375883 2.0700755 6.1666563e-39
-3.3560197 0.075901516 2.0482531 5.8832297e-39
-3.3502393 0.074563257 2.0502281 5.6080805e-39
-3.3444588 0.073225006 2.0522029 5.3332901e-39
-3.3135691 0.074800581 2.0303068 5.1506953e-39
-3.3078425 0.073474802 2.0322635 4.9673831e-39
-3.3021162 0.072149046 2.03422 4.875549e-39
-3.2963898 0.070823289 2.0361764 4.7840736e-39
-3.2906632 0.069497541 2.0381331 4.7833533e-39
-3.2849369 0.068171784 2.0400896 4.5078454e-39
-3.2792103 0.066846006 2.0420463 4.3241786e-39
-3.273484 0.065520249 2.0440028 3.5894989e-39
-3.0258329 0.086324304 1.8380692 4.0526518e-39
-3.0205901 0.085110471 1.8398607 4.697294e-39
-3.015347 0.08389663 1.841652 5.4316248e-39
-2.9906323 0.085167974 1.8240931 5.0639311e-39
-2.9854326 0.083964139 1.8258697 4.7877044e-39
-2.980233 0.082760327 1.8276463 4.6025956e-39
-2.9943752 0.079041317 1.8488176 4.5107573e-39
-2.9891322 0.077827483 1.8506089 4.4189176e-39
-2.9838891 0.076613642 1.8524003 4.3270779e-39
-2.9786463 0.075399809 1.8541917 4.2352368e-39
-2.9734035 0.074185997 1.855983 4.2348753e-39
-2.9681604 0.072972164 1.8577744 4.0501253e-39
-2.943835 0.074333638 1.8400825 3.9586513e-39
-2.9197538 0.075693853 1.822522 3.9590143e-39
-2.914597 0.074499965 1.8242841 4.0515672e-39
-2.90944 0.073306084 1.826046 4.1416105e-39
-2.9042835 0.072112218 1.8278079 4.3234752e-39
-2.8991265 0.070918337 1.8295698 3.3125547e-39
-2.8939698 0.069724448 1.8313317 2.2994929e-39
-2.9074373 0.065906949 1.8525187 1.5637314e-39
-2.8836563 0.067336708 1.8348556 8.2833275e-40
-2.8784995 0.06614282 1.8366176 1.010573e-39
-1.9612112 0.18413368 0.92164314 2.0643872e-38
-1.9650074 0.18235399 0.93023163 2.045987e-38
-1.9524903 0.17945608 0.93450838 1.9999253e-38
-1.9434581 0.17476419 0.94726503 2.0091089e-38
-1.9305856 0.17438477 0.94199264 2.0091087e-38
-1.9274564 0.17366031 0.94306183 2.0091089e-38
-1.8802782 0.16539638 0.94929576 2.0276192e-38
-1.8771654 0.16467571 0.95035934 2.0276192e-38
-1.8740526 0.16395506 0.95142287 2.0367671e-38
-1.8773882 0.16206872 0.96016872 2.0367673e-38
-1.874259 0.16134426 0.96123791 2.0459507e-38
-1.8711298 0.16061978 0.9623071 2.0184e-38
-1.8680005 0.15989532 0.96337628 1.9908135e-38
-1.8584886 0.16035174 0.95674068 1.9908137e-38
-1.8553758 0.15963106 0.95780426 1.9999972e-38
-1.852263 0.15891039 0.95886785 1.9999972e-38
-1.8491502 0.15818974 0.95993137 2.0091806e-38
-1.4647468 0.09560661 0.99306077 1.9087716e-38
-1.4617975 0.094923779 0.9940685 1.8703806e-38
-1.4558986 0.093558118 0.99608397 1.7493432e-39
-1.4260497 0.088670433 0.99876094 1.4754155e-38
-1.4231129 0.0879905 0.99976438 1.2444989e-38
-1.420176 0.087310567 1.0007678 1.1245381e-38
-1.4172392 0.086630628 1.0017713 1.0046494e-38
-1.4143022 0.085950695 1.0027747 7.4711517e-39
-1.4113654 0.085270762 1.0037782 4.9822396e-39
-1.4084285 0.08459083 1.0047816 4.2313861e-39
-1.4054916 0.083910897 1.0057851 3.4970762e-39
-1.4025548 0.083230965 1.0067885 2.2078088e-39
-1.3996179 0.082551032 1.007792 9.2426143e-40
-1.3930476 0.083341703 1.0014408 2.2092381e-39
-1.390125 0.082665078 1.0024393 3.5117955e-39
-1.3755121 0.079281971 1.0074321 1.3835818e-38
-1.3725896 0.078605346 1.0084307 1.6407589e-38
-1.3696671 0.077928722 1.0094292 1.7514297e-38
-1.3667444 0.077252105 1.0104278 1.8615598e-38
-1.3638219 0.07657548 1.0114263 1.843192e-38
-1.3573363 0.0774436 1.0048312 1.8246449e-38
-1.3544284 0.076770373 1.0058248 1.7970218e-38
-1.3550541 0.074545614 1.0144221 1.7696513e-38
-1.3486125 0.075423919 1.0078119 1.7700109e-38
-1.3457047 0.074750692 1.0088055 1.7688508e-38
-1.3427967 0.074077465 1.009799 8.9285007e-39
-1.1873045 0.061023224 0.97760999 9.219605e-40
-1.1845386 0.060382862 0.97855502 8.2977188e-40
-0.58559912 -0.052157808 1.08606 7.4227761e-40
-0.58271617 -0.054559149 1.0934922 5.8850892e-39
-0.58010113 -0.055164572 1.0943857 1.1143431e-38
-0.46474048 -0.076670818 1.11446 1.3359706e-38
-3.0778596 0.18151684 1.5304416 1.0779675e-38
-3.0912917 0.17888685 1.5473398 1.0779682e-38
-3.0864947 0.17777622 1.5489788 1.0779689e-38
-3.0816975 0.17666563 1.5506178 1.0779683e-38
-3.0769005 0.17555504 1.5522568 1.0871515e-38
-3.0540531 0.17600526 1.5385758 1.0962993e-38
-3.0673065 0.17333387 1.5555348 1.0962995e-38
-3.0625095 0.17222327 1.5571738 1.0962991e-38
-3.0397692 0.17269832 1.5434561 1.1054107e-38
-3.0529153 0.17000206 1.560452 1.1145949e-38
-3.0481181 0.16889147 1.562091 1.0962286e-38
-3.0433211 0.16778088 1.56373 1.0778252e-38
-3.0385242 0.16667029 1.565369 1.0778248e-38
-3.0525572 0.16383511 1.583351 1.0686774e-38
-3.0477221 0.16271572 1.585003 1.05953e-38
-3.0428872 0.16159636 1.5866549 1.0411978e-38
-3.0380523 0.16047698 1.5883069 1.0135746e-38
-3.0332174 0.15935762 1.5899589 9.9513533e-39
-3.0283825 0.15823825 1.5916108 9.3985438e-39
-3.0235474 0.15711889 1.5932628 8.8464533e-39
-3.0187125 0.15599953 1.5949148 9.2141526e-39
-3.0138776 0.15488015 1.5965668 9.5829337e-39
-3.0090425 0.15376076 1.5982188 1.0042834e-38
-3.0042076 0.1526414 1.5998707 1.0502379e-38
-2.9993727 0.15152203 1.6015227 1.0502747e-38
-2.9945378 0.15040267 1.6031747 1.0502027e-38
-2.9897029 0.14928329 1.6048266 1.0318713e-38
-2.9848678 0.14816393 1.6064786 1.0227602e-38
-2.9800329 0.14704457 1.6081306 1.0410923e-38
-2.9932497 0.1440777 1.6261765 1.0686061e-38
-2.9703629 0.1448058 1.6114346 1.0686411e-38
-2.965528 0.14368644 1.6130865 1.0686409e-38
-2.9606931 0.14256707 1.6147385 1.0502736e-38
-2.9737597 0.13956544 1.6328357 1.0318718e-38
-2.9877722 0.13643843 1.6518992 1.0410206e-38
-2.9828598 0.13530114 1.6535777 1.0501311e-38
-2.9779477 0.1341639 1.655256 1.0409463e-38
-2.9542696 0.1350532 1.6394949 1.0317633e-38
-2.9316833 0.13585085 1.6246504 1.0686416e-38
-2.9268484 0.13473149 1.6263022 1.1146295e-38
-2.9042068 0.13557366 1.6112616 9.4871423e-39
-2.8994098 0.13446307 1.6129006 7.8275958e-39
-3.3546138 0.082007185 2.0482757 6.5257068e-39
-3.3236291 0.08350078 2.0264163 5.3318482e-39
-3.3179028 0.082175024 2.0283728 5.2414518e-39
-3.3372726 0.077992417 2.0542006 5.1506925e-39
-3.3064499 0.079523489 2.0322859 4.9673802e-39
-3.3007236 0.078197733 2.0342424 4.8759063e-39
-3.294997 0.076871984 2.0361991 4.7833561e-39
-3.314151 0.072639376 2.0621009 4.7826359e-39
-3.3083706 0.071301118 2.0640757 4.5074867e-39
-3.3025901 0.069962837 2.0660508 4.2319844e-39
-3.2720914 0.071568936 2.0440254 3.6813344e-39
-3.0245578 0.091862313 1.8380898 3.9597388e-39
-3.0193148 0.09064848 1.8398812 4.4207085e-39
-3.0140719 0.089434639 1.8416727 4.9724487e-39
-2.9893677 0.090660326 1.8241135 4.8802643e-39
-2.9841681 0.089456491 1.8258902 4.8795413e-39
-2.9789684 0.088252686 1.8276668 4.6958647e-39
-2.9931002 0.084579326 1.8488381 4.5121909e-39
-2.968569 0.085845068 1.8312199 4.418919e-39
-2.9633694 0.084641255 1.8329965 4.4192736e-39
-2.9581697 0.08343745 1.8347731 4.4192694e-39
-2.9721282 0.079724006 1.8560036 4.5118209e-39
-2.9668853 0.078510173 1.857795 4.2345194e-39
-2.9425704 0.07982599 1.8401029 4.0501323e-39
-2.9373708 0.078622185 1.8418795 3.6827931e-39
-2.9321711 0.077418372 1.8436561 3.3168889e-39
-2.908186 0.078753069 1.8260663 3.4959006e-39
-2.9030292 0.07755921 1.8278282 3.6781128e-39
-2.8978724 0.076365329 1.8295901 4.1354742e-39
-2.8927157 0.075171441 1.831352 4.5921377e-39
-2.8875589 0.073977582 1.8331139 5.7859964e-39
-2.8824022 0.072783694 1.8348758 6.9798578e-39
-2.8772454 0.071589813 1.8366379 8.3659999e-39
-1.9993093 0.19119412 0.92793316 1.4744761e-38
-1.996164 0.19046591 0.92900783 1.6403556e-38
-1.9760182 0.19102499 0.91633761 1.9080872e-38
-1.9729054 0.19030432 0.91740113 1.9916019e-38
-1.9697926 0.18958367 0.91846472 2.0183294e-38
-1.9666798 0.18886299 0.91952831 2.0460952e-38
-1.963567 0.18814233 0.92059183 2.0276203e-38
-1.9392123 0.17986356 0.93879735 1.9999256e-38
-1.9360831 0.17913908 0.93986654 1.9999255e-38
-1.9329538 0.17841461 0.94093573 1.9999255e-38
-1.9298246 0.17769013 0.94200492 2.0090373e-38
-1.9266953 0.17696565 0.94307411 2.009109e-38
-1.923566 0.17624119 0.9441433 2.0182926e-38
-1.9204367 0.17551671 0.94521248 2.0091808e-38
-1.9173075 0.17479223 0.94628167 2.0000331e-38
-1.898198 0.17300835 0.94292665 2.009181e-38
-1.86707 0.16580172 0.95356226 2.02762e-38
-1.8639572 0.16508105 0.95462579 2.0092531e-38
-1.8608444 0.16436039 0.95568937 2.0000692e-38
-1.649269 0.12748812 0.98264027 1.9999966e-38
-1.6462317 0.12678494 0.98367804 1.9816294e-38
-1.4576411 0.099251851 0.98773456 1.6956758e-38
-1.4547043 0.098571919 0.988738 9.4605905e-39
-1.4517673 0.097891986 0.98974144 2.117411e-39
-1.4223987 0.091092646 0.99977595 1.2674156e-38
-1.4157174 0.091841727 0.99346375 1.184942e-38
-1.4127948 0.091165103 0.99446231 1.111258e-38
-1.4098722 0.090488486 0.99546087 9.7350432e-39
-1.4069496 0.089811862 0.99645942 8.4492972e-39
-1.4040271 0.089135237 0.99745798 8.0015516e-39
-1.4011046 0.088458613 0.99845654 7.4527246e-39
-1.3981819 0.087781996 0.99945509 7.1833502e-39
-1.3952594 0.087105371 1.0004537 6.9117828e-39
-1.3923368 0.086428747 1.0014522 8.1960378e-39
-1.3653527 0.082534827 1.001862 1.2264632e-38
-1.3624449 0.081861593 1.0028555 1.4852872e-38
-1.359537 0.081188366 1.0038491 1.6687057e-38
-1.3537211 0.079841912 1.0058362 1.8062771e-38
-1.3508133 0.079168685 1.0068297 1.7603959e-38
-1.3479053 0.078495458 1.0078233 1.7788356e-38
-1.3449974 0.077822231 1.0088168 1.7968323e-38
-1.3420895 0.077149004 1.0098104 9.3008747e-39
-1.1890571 0.062497407 0.98431277 1.3818484e-39
-1.1862787 0.06185415 0.9852621 1.4736951e-39
-0.58496577 -0.049406923 1.0860703 7.9162349e-39
-0.46669522 -0.07334464 1.1135876 1.4929193e-38
-0.46411234 -0.073942617 1.1144701 1.4373521e-38
-3.0767016 0.18654609 1.5304604 1.0687476e-38
-3.0901251 0.18395384 1.5473586 1.0779317e-38
-3.0853279 0.18284322 1.5489976 1.0871519e-38
-3.0805309 0.18173264 1.5506366 1.0963353e-38
-3.0757339 0.18062204 1.5522757 1.0871516e-38
-3.0709369 0.17951146 1.5539147 1.0871522e-38
-3.0661397 0.17840086 1.5555537 1.0871527e-38
-3.0433726 0.17882986 1.5418481 1.0870801e-38
-3.0386114 0.17772757 1.5434748 1.0870075e-38
-3.03385 0.17662524 1.5451016 1.0962277e-38
-3.0469515 0.17395848 1.5621098 1.0778613e-38
-3.0421546 0.17284788 1.5637488 1.0686416e-38
-3.0373576 0.1717373 1.5653878 1.0778248e-38
-3.0513813 0.16894214 1.58337 1.0870082e-38
-3.0465465 0.16782275 1.585022 1.0595293e-38
-3.0417113 0.16670337 1.586674 1.0411617e-38
-3.0368764 0.16558401 1.5883259 1.0227939e-38
-3.0320415 0.16446464 1.5899779 1.0135024e-38
-3.0272067 0.16334528 1.5916299 9.7669634e-39
-3.0223718 0.1622259 1.5932817 9.3974606e-39
-3.0175366 0.16110654 1.5949337 9.3045405e-39
-3.0127017 0.15998718 1.5965858 9.3059853e-39
-3.0078666 0.15886778 1.5982378 9.6754895e-39
-3.0030317 0.15774842 1.5998898 1.0135034e-38
-2.9981968 0.15662906 1.6015416 1.0319072e-38
-2.9933619 0.15550968 1.6031936 1.0502383e-38
-2.9885271 0.15439032 1.6048456 1.0318711e-38
-2.9836919 0.15327094 1.6064975 1.0135404e-38
-2.978857 0.15215158 1.6081495 1.0319079e-38
-2.9920647 0.14922445 1.6261957 1.0594581e-38
-2.969187 0.14991282 1.6114535 1.0686411e-38
-2.9823196 0.14696832 1.6295253 1.087008e-38
-2.9595172 0.1476741 1.6147574 1.0594572e-38
-2.9725747 0.14471219 1.6328548 1.0318353e-38
-2.9865775 0.14162706 1.6519185 1.0502031e-38
-2.9816654 0.14048977 1.653597 1.0684974e-38
-2.976753 0.13935253 1.6552753 1.0408737e-38
-2.9718409 0.13821527 1.6569537 1.022543e-38
-2.9669287 0.13707803 1.658632 1.0686409e-38
-2.9620166 0.13594078 1.6603104 1.1237413e-38
-2.9571044 0.13480353 1.6619887 1.0319769e-38
-2.9521921 0.13366628 1.6636671 9.4838801e-39
-2.9472799 0.13252904 1.6653454 7.2600573e-39
-3.3222365 0.089549467 2.0264387 5.0559928e-39
-3.3165102 0.088223711 2.0283952 5.0584927e-39
-3.3358669 0.084098145 2.0542235 5.1510484e-39
-3.3050573 0.085572176 2.0323083 4.968455e-39
-3.324306 0.081421614 2.0581734 4.8755462e-39
-3.2936044 0.082920671 2.0362215 4.8751902e-39
-3.3127451 0.078745104 2.0621235 4.8744728e-39
-3.3317778 0.074544504 2.0880625 4.5089244e-39
-3.3259435 0.073193751 2.0900559 4.1401503e-39
-3.3201091 0.071842998 2.0920494 3.8650054e-39
-3.0232828 0.097400323 1.8381104 3.867183e-39
-3.0180397 0.096186489 1.8399018 4.1451992e-39
-2.9933028 0.097356439 1.8223573 4.5129069e-39
-2.9881032 0.096152626 1.824134 4.6976625e-39
-2.9829035 0.094948791 1.8259106 4.9724473e-39
-2.9777038 0.093744978 1.8276871 4.6969381e-39
-2.9918249 0.090117335 1.8488587 4.5125482e-39
-2.9673045 0.09133736 1.8312403 4.5107531e-39
-2.9621048 0.090133555 1.8330169 4.5107517e-39
-2.9569051 0.088929743 1.8347934 4.6033033e-39
-2.9708531 0.085262023 1.8560243 4.7869645e-39
-2.9656103 0.084048182 1.8578156 4.4192525e-39
-2.9603672 0.082834348 1.859607 4.1390811e-39
-2.9551241 0.081620514 1.8613983 3.3111253e-39
-2.9309065 0.082910672 1.8436764 2.5746491e-39
-2.9069319 0.084200062 1.8260865 2.8472857e-39
-2.9017751 0.083006203 1.8278484 3.1228118e-39
-2.8966184 0.081812322 1.8296103 5.0513755e-39
-2.8914616 0.080618434 1.8313723 6.9799237e-39
-2.8863049 0.079424575 1.8331342 1.0010498e-38
-1.9985443 0.19451647 0.92794549 2.0638447e-38
-1.995399 0.19378826 0.92902023 2.0737106e-38
-1.9853901 0.19403601 0.92277193 2.0825378e-38
-1.9822608 0.19331153 0.92384112 2.0826836e-38
-1.9791316 0.19258706 0.92491031 2.0826486e-38
-1.9760023 0.19186258 0.9259795 2.0275124e-38
-1.947839 0.18534233 0.93560213 1.9539718e-38
-1.9384513 0.18316892 0.93880969 1.9999615e-38
-1.935322 0.18244444 0.93987888 1.9999613e-38
-1.9321928 0.18171996 0.94094801 1.9999613e-38
-1.9290636 0.18099549 0.9420172 2.0091449e-38
-1.9259342 0.18027101 0.94308639 2.0183286e-38
-1.8383515 0.16518117 0.95345998 2.0367673e-38
-1.8042877 0.15729484 0.96509868 2.0368037e-38
-1.7927942 0.15691391 0.96043175 2.0276202e-38
-1.7897118 0.15620029 0.96148497 2.0276558e-38
-1.7866294 0.15548666 0.96253812 2.0276196e-38
-1.7835469 0.15477303 0.96359134 2.0092522e-38
-1.7804646 0.15405941 0.96464449 2.0000691e-38
-1.4598638 0.10303393 0.98674262 1.7984592e-38
-1.4529999 0.10372486 0.9804939 1.5278573e-38
-1.4500774 0.10304824 0.98149246 8.8177028e-39
-1.412084 0.094252154 0.99447376 1.2258371e-38
-1.4053563 0.095031582 0.98796368 1.2167246e-38
-1.4024484 0.094358355 0.98895723 1.206606e-38
-1.3995404 0.09368512 0.98995078 1.1794477e-38
-1.3966326 0.093011901 0.99094433 1.1506795e-38
-1.3937247 0.092338674 0.99193788 1.2169036e-38
-1.3908168 0.091665439 0.99293143 1.2889733e-38
-1.3675535 0.086279616 1.0008799 3.1548539e-39
-1.3646456 0.085606389 1.0018735 7.0998174e-39
-1.3617376 0.084933162 1.002867 1.1065304e-38
-1.3588297 0.084259935 1.0038606 1.4942544e-38
-1.3528863 0.084878922 0.99837166 1.8797826e-38
-1.349991 0.084208593 0.99936092 1.8154964e-38
-1.350106 0.082240254 1.0068412 1.7512122e-38
-1.3442001 0.082867928 1.0013394 1.7880908e-38
-1.3413048 0.082197599 1.0023288 1.8336034e-38
-1.1838555 0.070369385 0.96331114 1.5655334e-39
-1.1811147 0.069734819 0.96424758 1.8413973e-39
-1.1763083 0.070332058 0.9594444 2.1179954e-39
-1.173578 0.069699973 0.96037722 3.3136659e-39
-1.1708479 0.069067888 0.96131003 4.5060784e-39
-0.99340075 0.060076796 0.90098029 1.8474859e-40
-0.58719903 -0.044282421 1.0786557 1.1154179e-38
-0.48228988 -0.065093614 1.1013947 1.538875e-38
-0.47971809 -0.065689027 1.1022733 1.5480584e-38
-0.4771463 -0.06628444 1.1031522 1.5572777e-38
-0.47457457 -0.066879839 1.1040308 1.54813e-38
-0.47200277 -0.067475252 1.1049095 1.5389102e-38
-0.46943098 -0.068070665 1.1057882 1.5296545e-38
-0.46685922 -0.068666063 1.1066669 1.5204709e-38
-0.46428743 -0.069261476 1.1075456 1.538838e-38
-3.0755436 0.19157527 1.5304791 1.0687472e-38
-3.0889585 0.18902084 1.5473775 1.0778596e-38
-3.0841613 0.18791023 1.5490165 1.077896e-38
-3.0793643 0.18679965 1.5506555 1.0778963e-38
-3.0745673 0.18568905 1.5522945 1.0778607e-38
-3.0697701 0.18457846 1.5539335 1.0870451e-38
-3.0649731 0.18346786 1.5555726 1.0870459e-38
-3.0601761 0.18235728 1.5572116 1.0870447e-38
-3.0553792 0.18124668 1.5588506 1.0870434e-38
-3.0505819 0.18013607 1.5604897 1.0870798e-38
-3.045785 0.17902549 1.5621287 1.077861e-38
-3.040988 0.17791489 1.5637677 1.0686773e-38
-3.0550404 0.17516853 1.5817369 1.0778248e-38
-3.0502055 0.17404915 1.5833889 1.087008e-38
-3.0453706 0.17292976 1.5850409 1.0686406e-38
-3.0405354 0.1718104 1.5866929 1.0594925e-38
-3.0357006 0.17069103 1.5883449 1.0411251e-38
-3.0308657 0.16957167 1.5899968 1.022722e-38
-3.0260308 0.16845229 1.5916488 9.8588003e-39
-3.0211959 0.16733293 1.5933008 9.5814847e-39
-3.0163608 0.16621357 1.5949527 9.3052454e-39
-3.0115259 0.1650942 1.5966047 9.0293956e-39
-3.0066907 0.16397481 1.5982567 9.3989054e-39
-3.0018559 0.16285545 1.5999087 9.8598835e-39
-2.997021 0.16173607 1.6015607 1.013504e-38
-2.9921861 0.16061671 1.6032126 1.0410545e-38
-2.9873512 0.15949734 1.6048646 1.0318709e-38
-2.9825161 0.15837798 1.6065166 1.0227234e-38
-2.9957523 0.1554992 1.62455 1.0319072e-38
-2.9908798 0.15437114 1.6262147 1.0410906e-38
-2.9680111 0.15501985 1.6114725 1.0502742e-38
-2.9631763 0.15390049 1.6131245 1.068641e-38
-2.9762621 0.15098695 1.6312093 1.0502736e-38
-2.9713898 0.14985888 1.632874 1.0226155e-38
-2.9853828 0.14681569 1.6519378 1.0317993e-38
-2.9804707 0.14567842 1.6536163 1.0501653e-38
-2.993329 0.14271222 1.6717787 1.0133582e-38
-2.9706461 0.14340392 1.656973 9.8577227e-39
-2.9834297 0.14042035 1.675161 1.0317625e-38
-2.9784799 0.1392744 1.6768522 1.077752e-38
-2.9559097 0.13999216 1.662008 1.0502015e-38
-2.9509976 0.13885491 1.6636864 1.0226474e-38
-2.9460852 0.13771766 1.6653647 7.9126168e-39
-3.3460219 0.092880383 2.0502961 5.6988524e-39
-3.3402414 0.091542132 2.0522711 5.4247543e-39
-3.334461 0.090203874 2.0542462 5.2439573e-39
-3.3286805 0.088865593 2.0562212 4.9677376e-39
-3.3229001 0.087527342 2.0581963 4.7833519e-39
-3.3171196 0.086189084 2.0601711 4.5989663e-39
-3.3361933 0.082058057 2.0860918 4.5067734e-39
-3.3303587 0.080707274 2.0880854 4.2312684e-39
-3.3245244 0.079356521 2.0900788 3.9564807e-39
-3.3186901 0.078005761 2.0920722 3.7717363e-39
-3.0422246 0.1005436 1.8580759 3.6827917e-39
-3.0167646 0.1017245 1.8399224 4.0519274e-39
-3.0115216 0.10051066 1.8417138 4.5118265e-39
-2.9868386 0.10164493 1.8241544 4.6969381e-39
-2.9816389 0.10044109 1.825931 4.8813251e-39
-2.9764392 0.099237278 1.8277075 4.8806076e-39
-2.9905498 0.095655344 1.8488793 4.9728005e-39
-2.9660399 0.09682966 1.8312608 4.3270821e-39
-2.9608402 0.095625848 1.8330374 3.6842351e-39
-2.9556406 0.094422042 1.834814 3.1332235e-39
-2.969578 0.090800032 1.8560448 2.4910729e-39
-2.964335 0.089586191 1.8578362 3.4036685e-39
-2.9400413 0.090810589 1.8401437 4.4088311e-39
-2.9348416 0.089606777 1.8419204 5.6023296e-39
-2.9108346 0.090840943 1.8243448 6.7961883e-39
-2.9056778 0.089647055 1.8261068 8.3663586e-39
-2.900521 0.088453196 1.8278686 9.9312096e-39
-2.00407 0.19929524 0.92580849 1.9452517e-38
-2.0009248 0.19856703 0.92688322 1.9818816e-38
-1.9908875 0.19879031 0.92064589 2.0281939e-38
-1.9877583 0.19806583 0.92171508 2.0276556e-38
-1.984629 0.19734137 0.92278427 2.0274044e-38
-1.9814998 0.19661689 0.9238534 2.0273685e-38
-1.9783705 0.19589241 0.92492259 2.0273685e-38
-1.9752413 0.19516794 0.92599177 1.9998896e-38
-1.9428867 0.19282812 0.91749793 1.9998894e-38
-1.9246992 0.18607031 0.93337899 2.0091809e-38
-1.9215864 0.18534963 0.93444258 2.0092168e-38
-1.9184736 0.18462898 0.93550617 2.0092169e-38
-1.9153608 0.18390831 0.93656969 2.0184003e-38
-1.912248 0.18318763 0.93763328 2.0092168e-38
-1.9091352 0.18246698 0.93869686 2.0000331e-38
-1.7982094 0.16159704 0.95833755 2.0551711e-38
-1.795127 0.16088341 0.9593907 2.0276209e-38
-1.7858797 0.15874253 0.96255022 2.0275118e-38
-1.7738208 0.15849772 0.95700371 2.0368393e-38
-1.7707545 0.15778783 0.95805138 2.0276925e-38
-1.6515726 0.13732715 0.97170544 2.0091802e-38
-1.4017411 0.097429894 0.98896867 1.2603106e-38
-1.3988333 0.096756659 0.98996222 1.2515577e-38
-1.3959254 0.09608344 0.99095577 1.2508769e-38
-1.3930174 0.095410205 0.99194932 1.2508778e-38
-1.3901095 0.094736978 0.99294287 1.260063e-38
-1.3726621 0.090697616 0.99890417 1.0623667e-38
-1.3697542 0.090024382 0.99989778 9.9614356e-39
-1.3637638 0.090618566 0.99442589 9.4013773e-39
-1.3608683 0.089948237 0.99541521 9.6739382e-39
-1.357973 0.089277908 0.99640447 9.8448266e-39
-1.3515975 0.090065964 0.98999 1.3085748e-38
-1.3487165 0.089398943 0.99097437 1.6226792e-38
-1.3492868 0.087266915 0.9993723 1.6868189e-38
-1.3463914 0.086596586 1.0003616 1.7601447e-38
-1.343496 0.085926257 1.0013509 1.8064579e-38
